-104.19428253   42.26381683  790.78424072
-103.89020538   41.94804764  790.93310547
-103.28704071   43.44910049  788.79876709
-104.15177155   42.57010269  790.46160889
-103.60334015   44.41485596  788.74914551
-104.07655334   43.83254623  789.89074707
-103.15705109   45.97396469  787.80603027
-103.56421661   45.04349899  788.45129395
-103.50880432   46.30953598  788.02941895
-103.87708282   46.65262985  788.37683105
-103.48272705   48.55504227  787.83087158
-104.2226944    47.63115692  788.55059814
-103.40122223   50.12779999  787.21038818
-103.0173111    50.74178696  786.73883057
-103.73320007   50.45477295  787.28485107
-103.31973267   51.69802094  786.58996582
-104.01275635   51.7224884   786.96221924
-103.97338867   52.99081421  786.66436768
-102.92306519   54.8776207   786.019104  
-103.56642151   55.84275818  786.019104  
-104.21307373   57.77485657  786.04394531
-104.20978546   58.09474182  786.019104  
-104.18675232   60.01174927  785.84539795
-103.51737976   61.28282547  785.64685059
-103.19584656   62.56906509  785.64685059
-103.51737976   63.533741    785.64685059
-104.14726257   64.81179047  785.54754639
-103.51737976   65.46310425  785.64685059
-103.84545898   67.07513428  785.69647217
-103.53700256   68.3700943   785.79577637
-103.53700256   68.69171906  785.79577637
-102.96856689   70.02902985  786.36657715
-103.04006195   70.72180939  786.91259766
-102.12840271  -40.1631279   782.39562988
-102.66773987  -38.84397888  781.62628174
-102.04417419  -38.85014343  781.75036621
-102.61232758  -37.54404449  781.20440674
-101.7177887   -38.52773285  781.70074463
-102.87644196  -37.20420074  780.7824707 
-101.72747803  -35.97160339  781.77520752
-101.78701019   31.6394577   792.19885254
-101.74237061   32.921978    791.85144043
-101.79019928   32.61320496  792.22369385
-102.08882904   33.90171051  792.02514648
-102.15920258   33.27629471  792.57116699
-101.90647888   35.7827034   790.61047363
-102.36161804   35.50475311  791.62805176
-102.77251434   34.88624191  792.29815674
-101.74973297   37.0200386   789.39440918
-101.82970428   36.40244293  790.01483154
-102.62120056   36.77770615  791.13165283
-102.07279205   37.66622543  789.39440918
-102.83517456   37.70885849  790.2878418 
-102.06316376   38.63186264  789.31994629
-102.79964447   39.63591385  790.01483154
-102.71245575   40.89459229  789.3447876 
-102.77058411   39.94796753  789.79150391
-101.90592194   41.79799652  788.10388184
-102.62848663   42.15239334  788.69946289
-101.85778046   43.06790161  787.73156738
-102.90914917   43.42585754  788.37683105
-101.80323029   44.97827911  787.30969238
-102.8897171    43.74027634  788.22796631
-102.13831329   45.30622864  787.40893555
-101.72941589   47.52172089  786.73883057
-102.76985168   47.55620193  787.30969238
-102.04495239   48.48468018  786.68920898
-102.40888977   47.86032867  787.01184082
-101.67165375   49.74750137  786.29211426
-102.73421478   49.15035248  787.03668213
-102.30877686   51.35338211  786.24249268
-102.63054657   51.99698639  786.24249268
-102.61110687   53.91759491  786.09356689
-102.27648163   54.55419159  785.99432373
-101.62672424   55.83746719  785.94464111
-102.57223511   57.43499374  785.79577637
-101.9355011    58.08190155  785.84539795
-102.88082123   59.67879486  785.69647217
-102.25387573   61.61800385  785.82055664
-101.6235199    62.26913452  785.91986084
-102.88732147   64.18496704  785.74609375
-102.88407135   65.46930695  785.72131348
-102.89707184   67.08573151  785.82055664
-101.65239716   68.40032196  786.14318848
-102.9068222    68.70039368  785.89501953
-102.02242279   70.04228973  786.51550293
-102.07714081   70.72403717  786.93737793
-101.49445343  -40.16567612  782.4453125 
-101.49123383  -39.84416199  782.42047119
-101.38821411  -37.56431961  781.62628174
-100.76764679  -38.53140259  781.77520752
-101.38499451  -36.28351212  781.60144043
-100.44132996  -37.24913788  781.72558594
-101.08759308  -35.97160339  781.77520752
-100.94848633   30.28545761  790.70977783
-101.00234222   29.97781181  791.13165283
-100.44801331   31.52447701  789.31994629
-100.8217392    31.54033661  789.71704102
-101.0276947   30.9569931  791.3302002
-101.45962524   31.63846779  792.17407227
-100.4511795   32.1716156  789.3447876
-100.86610413   32.84768677  790.06451416
-101.38333893   31.93866539  791.57843018
-100.43222809   34.10361862  789.19586182
-100.82807922   34.12828445  789.7666626 
-100.78372192   34.75947952  789.41925049
-101.4968338    35.75238037  789.94042969
-101.38840485   37.006073    789.09655762
-101.4649353    36.06435776  789.69219971
-100.66332245   37.62240982  788.47613525
-100.93832397   39.21747589  788.10388184
-101.32144165   38.59542084  788.57537842
-101.24810028   40.50263214  788.00457764
-101.59938812   40.51411438  788.22796631
-100.88746643   41.13213348  787.70678711
-101.17475891   43.05162048  787.43377686
-100.44786072   44.6264801   786.78851318
-101.12692261   44.64196014  787.0614624 
-100.76985931   45.2705307   786.78851318
-101.42663574   46.24244308  786.88775635
-101.06633759   47.19078064  786.58996582
-100.70309448   48.78049088  786.26727295
-100.36231232   50.05826569  786.1184082 
-100.68402863   50.38001633  786.1184082 
-100.68084717   51.98713684  786.09356689
-100.36547852   53.59923553  786.14318848
-100.36547852   54.88628387  786.14318848
-101.00256348   56.16979218  786.09356689
-100.38131714   57.46945572  786.26727295
-100.69038391   58.10574722  786.16802979
-101.31467438   59.38158798  786.019104  
-100.68720245   61.64330292  786.14318848
-100.37181854   62.29076385  786.19287109
-101.31147766   64.52694702  785.99432373
-100.68720245   65.18269348  786.14318848
-100.39399719   66.81048584  786.36657715
-100.72853088   68.4283905   786.46582031
-100.44152069   69.74017334  786.73883057
-101.08546448   70.06217957  786.73883057
-100.80164337   70.41083527  787.03668213
-99.8236618  -38.85754395 781.89929199
-99.80782318 -38.2114296  781.77520752
-99.47840881 -36.60806656 781.70074463
-99.12701416 -35.31707382 781.45257568
-99.15219879 -35.96589279 781.65112305
-99.09238434 -34.66527176 781.17956543
-99.07047272  19.68252754 793.81207275
-99.31143188  21.28904915 793.14196777
-99.28346252  21.60758781 792.9185791 
-99.68279266  22.27338028 793.51422119
-99.15605164  23.84869576 791.90106201
-99.58926392  23.22590637 792.76971436
-99.82611847  25.15069008 792.07476807
-99.92621613  24.20236015 792.86895752
-99.32113647  26.07578659 790.63531494
-99.70100403  25.76673698 791.08203125
-99.80822754  27.64945793 789.36956787
-99.2244873   27.34355927 789.8659668 
-99.76430511  28.28317261 789.02215576
-99.18083954  27.97781944 789.51849365
-99.41011047  30.21131134 788.77392578
-100.15961456   30.2426815   789.59295654
-99.40385437  31.17786789 788.7243042 
-99.05612946  32.46097183 788.52575684
-99.32253265  34.05535889 788.07904053
-100.02739716   34.39848328  788.55059814
-99.26623535  35.32554245 787.63232422
-99.98331451  35.35114288 788.203125  
-99.61994934  36.30409622 787.88049316
-99.61053467  37.26799393 787.80603027
-100.26483154   38.56141281  787.88049316
-99.55405426  39.82494736 787.35931396
-99.16926575  42.05424118 786.86291504
-100.19850922   41.43624878  787.35931396
-99.48501587  43.0177002  786.81329346
-100.16376495   42.71047592  787.08630371
-99.45677948  44.29327011 786.58996582
-99.43167114  45.56954956 786.39141846
-99.0941925   46.84960938 786.26727295
-99.73146057  47.81203079 786.21765137
-99.72831726  49.74122238 786.19287109
-100.04690552   50.38319778  786.16802979
-99.42852783  52.32704926 786.36657715
-100.05638123   52.96239853  786.24249268
-99.74090576  54.89668274 786.29211426
-99.43795013  55.87273407 786.44104004
-100.0690155    57.1530571   786.34173584
-99.11921692  58.44965363 786.46582031
-99.42852783  60.051548   786.36657715
-100.05953979   61.00940704  786.26727295
-99.43795013  63.27608109 786.44104004
-99.74720001  63.5899353  786.34173584
-99.45049286  65.85946655 786.5402832 
-99.45363617  66.18348694 786.56512451
-99.49128723  68.1408844  786.86291504
-99.1786499   68.14733124 786.93737793
-100.12271118   69.0983429   786.76367188
-99.19116211  68.80019379 787.03668213
-99.29125977  71.12679291 787.83087158
-97.85709381 -40.1185379  781.52703857
-97.8664093  -39.8024559  781.60144043
-98.94527435 -39.85048294 782.54455566
-97.8912735  -38.53262329 781.79998779
-98.84172058 -36.92918396 781.72558594
-98.79779053 -34.99389267 781.37811279
-98.52179718 -35.96931839 781.72558594
-98.45298767 -34.34553909 781.17956543
-97.813591   -33.38634491 781.17956543
-97.7954483   12.21284389 794.01062012
-97.71596527  13.17707443 793.36529541
-97.74654388  12.85637665 793.61352539
-97.71902466  15.45058918 793.39013672
-98.06212616  16.10306931 793.5390625 
-97.95478058  17.38317871 792.67041016
-98.40534973  17.40549469 793.68798828
-97.82904053  18.65693665 791.65289307
-97.93331909  17.70373344 792.4967041 
-98.47612     18.71834946 794.25878906
-97.70329285  19.60375977 790.63531494
-97.78916168  18.97321701 791.3302002 
-98.33149719  19.66468239 793.09234619
-98.76412201  19.03629303 793.9609375 
-97.71862793  20.90144539 790.75939941
-98.15917969  20.60233498 791.70251465
-98.58506012  20.62364769 792.52148438
-97.68795776  21.86553764 790.51123047
-98.11301422  21.56430435 791.3302002 
-98.92179108  21.92388725 792.62078857
-98.01147461  23.48328972 790.51123047
-98.4245224   23.18082619 791.23095703
-98.85984039  22.88278961 792.12438965
-98.27633667  24.76271248 790.03967285
-98.20223999  26.03649712 789.44403076
-98.59966278  25.40942764 790.03967285
-97.81761932  26.66594887 788.94769287
-98.92609406  27.35043335 790.06451416
-98.18680573  28.93997192 789.31994629
-98.21150208  28.62410736 789.51849365
-97.79915619  29.88941383 788.79876709
-97.69760895  31.79346466 787.97973633
-97.75608063  30.84436798 788.45129395
-98.02009583  32.43849564 787.97973633
-98.71477509  32.45484161 788.37683105
-98.64641571  34.04463196 787.83087158
-98.94389343  34.68079758 787.63232422
-98.91895294  36.60580063 787.43377686
-98.57804871  37.88779831 787.28485107
-97.88116455  39.47777939 786.86291504
-98.56250763  38.84836578 787.1607666 
-97.85338593  40.75444031 786.6395874 
-98.54386139  39.80736923 787.01184082
-98.84412384  41.40882111 786.83813477
-98.85347748  41.0906601  786.91259766
-98.81295013  43.64937973 786.58996582
-98.15054321  44.28488541 786.44104004
-98.14743805  46.21473312 786.41619873
-98.14434814  47.17887115 786.39141846
-98.4630661   48.78665161 786.36657715
-97.8564682   50.09302902 786.66436768
-98.79424286  50.72257996 786.44104004
-98.79735565  51.6898613  786.46582031
-98.17221832  52.98747253 786.61474609
-98.16912842  54.59553146 786.58996582
-98.49414062  56.52898788 786.61474609
-97.86264801  57.50211334 786.71405029
-98.17531586  58.14060211 786.6395874 
-98.4848175   60.06481552 786.5402832 
-98.80670929  61.35251617 786.5402832 
-98.80982971  61.99832535 786.56512451
-97.88425446  62.02375412 786.88775635
-98.51900482  64.59418488 786.81329346
-98.20938873  63.63610077 786.91259766
-98.83789062  65.88025665 786.78851318
-98.22177887  65.57683563 787.01184082
-98.84723663  66.5306015  786.86291504
-98.85035706  66.85476685 786.88775635
-98.85971069  67.50528717 786.96221924
-98.89712524  69.4641571  787.26000977
-97.69760895  70.17269135 787.97973633
-98.37045288  71.16040039 788.203125  
-97.76531219  71.18952942 788.52575684
-96.39849854 -41.45850372 782.66864014
-96.90679932 -40.76216507 781.60144043
-96.92218781 -41.08859634 781.72558594
-97.22358704 -39.80119324 781.57666016
-97.57131958 -38.85261154 781.79998779
-97.25445557 -38.53384781 781.8248291 
-97.57441711 -36.93387222 781.8248291 
-97.57441711 -35.65389252 781.8248291 
-97.22358704 -33.7232132  781.57666016
-97.552742   -34.36627197 781.65112305
-96.55319977 -32.43333435 781.32849121
-96.60533142 -33.4107399  781.75036621
-96.5041275  -31.77759171 780.93139648
-96.45040131   9.60847282 793.63830566
-96.70559692  10.89995003 793.06750488
-96.7146759   11.55022812 793.14196777
-97.09392548  11.55673313 793.58868408
-97.66400909  13.49461365 792.94342041
-97.44307709  12.5342989  793.78723145
-96.55125427  14.77149963 791.80175781
-97.62731934  13.81396866 792.64556885
-96.56033325  15.09699726 791.8762207 
-96.94817352  15.75557899 792.3973999 
-96.50283813  17.03150558 791.40466309
-97.65483856  17.06301689 792.86895752
-97.03178406  18.62827682 790.43676758
-97.51728058  18.33521652 791.75213623
-96.90383148  19.89608574 789.39440918
-96.94343567  19.25776482 789.71704102
-97.44085693  18.96845627 791.13165283
-96.87640381  20.53645897 789.17102051
-97.28801727  21.20178032 789.89074707
-96.49271393  22.137537   788.67468262
-97.27884674  21.84631538 789.81628418
-96.4957428   23.10665894 788.69946289
-97.65729523  22.82901955 790.26306152
-96.45930481  25.03405762 788.40167236
-97.59902191  24.43167686 789.79150391
-97.06488037  26.63658905 788.07904053
-97.12295532  25.68428421 788.55059814
-97.0740509   27.28427696 788.15350342
-97.47327423  27.62859535 788.77392578
-96.73626709  28.57012177 788.02941895
-97.4671402   28.91813278 788.7243042 
-97.06793976  29.54051781 788.10388184
-97.41500854  30.19325256 788.3024292 
-96.62049103  31.4352684  787.08630371
-96.57783508  33.03142166 786.73883057
-97.28312683  33.05226517 787.23522949
-96.90898132  34.32269669 786.81329346
-97.61453247  34.34435272 787.30969238
-96.56869507  35.6041069  786.66436768
-97.58992004  34.98000717 787.11114502
-96.8875885   36.89084625 786.6395874 
-97.22485352  38.18473434 786.76367188
-97.56529999  38.1919632  786.91259766
-97.2217865   38.50553513 786.73883057
-97.56222534  38.51282501 786.88775635
-96.86006927  39.77724075 786.41619873
-96.85395813  42.02771378 786.36657715
-96.53214264  42.67142105 786.36657715
-97.50991058  44.93006897 786.46582031
-97.5160675   45.89865494 786.51550293
-96.5869751   47.20418167 786.81329346
-97.53760529  48.48468018 786.68920898
-96.60526276  48.50150681 786.96221924
-96.91509247  50.10567474 786.86291504
-96.59916687  49.78675842 786.91259766
-97.23098755  50.74658966 786.81329346
-96.59916687  51.39714813 786.91259766
-97.23098755  52.03473663 786.81329346
-96.59916687  51.71922684 786.91259766
-97.22792053  53.64323044 786.78851318
-96.59611511  53.32793045 786.88775635
-97.2217865   54.28385925 786.73883057
-96.59611511  54.29413223 786.88775635
-97.54375458  55.89389038 786.73883057
-96.602211    55.90799713 786.93737793
-97.54991913  57.50755692 786.78851318
-96.62049103  57.85147095 787.08630371
-97.54991913  58.79566193 786.78851318
-96.93343353  59.13447189 787.01184082
-97.54991913  59.76174545 786.78851318
-97.2401886   59.44721603 786.88775635
-97.57453156  61.38736725 786.98706055
-96.67837524  63.04359818 787.55786133
-96.9945755   64.0065918  787.50823975
-96.70275116  65.63887787 787.75640869
-97.61453247  66.2461319  787.30969238
-97.04959869  68.23545837 787.95495605
-96.44108582  67.93861389 788.25274658
-97.05876923  68.56443787 788.02941895
-96.7636795   68.90649414 788.25274658
-97.38433075  69.85677338 788.05419922
-96.80328369  70.54849243 788.57537842
-97.16269684  71.54377747 788.87322998
-95.84291077 -41.49531555 783.36358643
-96.3373642  -40.79193878 782.17230225
-96.11779785 -41.15512085 782.99127197
-96.01116943 -39.50888062 782.12268066
-95.15647888 -39.23228455 782.99127197
-95.4436264  -37.61680222 782.71826172
-95.15647888 -38.59133911 782.99127197
-95.7275238  -36.64177322 782.42047119
-95.18060303 -36.3572464  783.18981934
-95.45573425 -35.05836105 782.81756592
-95.18664551 -35.07725525 783.23950195
-96.02030182 -34.71042252 782.19708252
-95.18664551 -34.75668335 783.23950195
-96.26400757 -32.44363785 781.57666016
-95.9776535  -32.4549675  781.84967041
-95.15647888 -33.14330292 782.99127197
-95.8801651  -31.14328003 781.05548096
-95.09616089 -31.84121513 782.49493408
-95.2559967  -30.18903351 781.17956543
-95.69098663   4.09555531 795.42523193
-95.36545563   5.07224131 795.42523193
-95.10658264   7.00654125 793.26605225
-95.25833893   6.36732864 794.53179932
-95.97157288   6.04609585 795.05297852
-95.296875     7.64511919 792.14923096
-96.32701111   7.02451658 795.30114746
-95.27896118   9.2644825  792.00030518
-95.7109375    8.95040798 792.89379883
-96.18572998   8.96441555 794.13470459
-95.27000427  10.23600006 791.92584229
-96.34182739  10.89551544 792.74487305
-95.58511353  11.8555336  791.85144043
-95.9723053   11.21471214 792.37261963
-95.12967682  13.45744514 790.75939941
-95.14759064  13.13626575 790.9083252 
-96.30562592  12.51313686 792.44702148
-95.43531799  14.42568398 790.61047363
-96.20610046  13.79623604 791.62805176
-95.3574295   15.38389206 789.96520996
-96.14878845  16.05471992 791.15649414
-95.28852844  17.31133652 789.39440918
-95.73783875  16.36363602 790.43676758
-96.13069153  16.6992054  791.00756836
-95.22561646  18.26854706 788.87322998
-96.30007935  18.28866386 789.74188232
-95.53944397  19.55822182 788.79876709
-95.84416199  20.52289581 788.64984131
-95.44625854  22.11942482 788.02941895
-95.8049469   21.48246956 788.32720947
-95.75971222  22.76234436 787.95495605
-96.121521    23.41693687 788.27758789
-95.3680954   24.35720634 787.38409424
-96.11849213  24.06145096 788.25274658
-95.38012695  25.97183418 787.48339844
-95.68732452  27.57904434 787.35931396
-95.30197144  28.84897804 786.83813477
-96.009552    28.86808777 787.35931396
-95.28092194  29.48655891 786.66436768
-95.97625732  29.50237465 787.08630371
-95.94297028  31.74640083 786.81329346
-96.2771225   30.78417397 786.91259766
-96.24979401  32.70735168 786.68920898
-95.31098938  32.07248688 786.91259766
-95.27792358  33.34922409 786.6395874 
-96.22245789  34.62943649 786.46582031
-96.23156738  36.24234009 786.5402832 
-95.54857635  37.19285202 786.21765137
-96.19513702  38.48124313 786.24249268
-95.51239014  40.07381058 785.91986084
-95.22681427  42.3415451  786.21765137
-95.5515976   42.66468811 786.24249268
-95.29895782  44.94992065 786.81329346
-95.6269989   46.24098587 786.86291504
-95.3079834   45.92037582 786.88775635
-95.94902039  46.88510132 786.86291504
-95.64208221  47.53671265 786.98706055
-96.28926849  48.82668304 787.01184082
-95.64208221  50.1135788  786.98706055
-95.95809937  50.43250275 786.93737793
-95.34405518  52.70373917 787.18560791
-95.97322845  53.98398209 787.0614624 
-96.2831955   54.29927063 786.96221924
-95.68430328  56.58070755 787.33447266
-96.00350189  57.8678894  787.30969238
-96.01257324  58.51789856 787.38409424
-95.41920471  59.83903122 787.80603027
-95.74764252  61.77758026 787.85565186
-95.14172363  61.80287933 788.17828369
-95.45827484  62.766716   788.12866211
-95.15671539  62.78055573 788.3024292 
-96.07007599  63.38990021 787.85565186
-95.4642868   63.41585922 788.17828369
-96.09731293  65.34320831 788.07904053
-95.18067169  64.73272705 788.50091553
-96.10336304  65.99246979 788.12866211
-95.51539612  66.67749023 788.60021973
-95.84416199  68.29563141 788.64984131
-95.86828613  69.60430145 788.84838867
-96.20020294  70.57957458 788.92285156
-95.30350494  70.95600891 789.51849365
-95.93162537  71.26570892 789.36956787
-95.34844208  71.95935822 789.89074707
-93.96772766 -62.68923187 791.8762207 
-94.02368164 -62.07795715 792.34777832
-94.91118622 -40.22555542 783.61175537
-94.68336487 -40.9071312  784.38110352
-94.62045288 -39.91746521 783.85992432
-94.89916229 -37.65496826 783.51245117
-94.64441681 -37.03939056 784.05847168
-94.92021179 -35.41801834 783.68621826
-94.34443665 -34.47975159 784.23217773
-94.57850647 -32.52399063 783.51245117
-94.79695892 -31.52794266 782.66864014
-94.84205627 -32.18392563 783.04095459
-94.95741272 -29.87594414 781.35327148
-94.16529846 -30.56982994 782.74310303
-93.88661957 -30.58339882 783.09057617
-94.6707077  -29.56646919 781.62628174
-94.08170319 -29.58242989 782.04821777
-94.07214355  -3.71827745 795.49969482
-94.45071411  -3.06881499 795.94641113
-93.91622162  -2.74646115 796.93914795
-94.69962311  -1.11326075 795.30114746
-94.46838379  -1.76604474 796.09533691
-9.40662766e+01  1.88818976e-01  7.95450073e+02
-9.38665009e+01 -7.88954198e-01  7.96517273e+02
-93.79039764   1.16211677 793.11712646
-93.8901825    0.83839059 793.9609375 
-9.43947601e+01  5.14407039e-01  7.95474854e+02
-93.95594788   2.13235903 791.77697754
-93.99717712   1.80908382 792.12438965
-94.61096191   1.81463861 794.55657959
-94.95986176   1.81509197 794.75512695
-93.92355347   3.42745161 791.50396729
-94.93317413   4.09095526 794.53179932
-94.95690155   3.76670027 794.73034668
-93.89115906   4.39780474 791.23095703
-94.9302063    4.41601324 794.50695801
-93.99423218   6.02363634 792.09960938
-94.01779938   6.99799252 792.29815674
-94.83235168   6.36056662 793.68798828
-94.63367462   7.96809149 792.02514648
-94.33022308   7.64559793 792.19885254
-93.83815002   9.5739193  790.78424072
-94.21201324   9.2551918  791.20611572
-93.81459045  10.54225922 790.58569336
-94.5269165   10.54953957 791.13165283
-94.14404297  11.19012356 790.63531494
-94.84176636  11.84364319 791.05725098
-94.04356384  13.44097328 789.79150391
-94.81200409  12.48727226 790.809021  
-94.32823944  14.72797775 789.46887207
-94.36382294  14.08704185 789.7666626 
-94.2778244   15.68896008 789.04693604
-95.00428009  15.05583286 789.71704102
-93.84261322  17.28303528 788.10388184
-94.18293762  17.28630066 788.25274658
-94.17107391  17.92929459 788.15350342
-94.18590546  18.57739067 788.27758789
-93.88103485  19.87168884 788.42651367
-94.54123688  20.19756508 788.55059814
-93.82783508  22.11803055 787.97973633
-94.84603882  21.48449898 788.40167236
-94.04653168  23.70444489 787.11114502
-95.01589966  24.34952927 787.13592529
-95.03388214  26.28751564 787.28485107
-94.33592987  27.23874283 786.83813477
-94.66988373  27.24217796 786.93737793
-94.96497345  28.52243233 786.71405029
-94.30617523  30.12766266 786.58996582
-94.65196991  31.10134697 786.78851318
-94.99193573  31.75140762 786.93737793
-94.32997894  33.0335083  786.78851318
-94.67286682  32.39660645 786.96221924
-94.30914307  33.99208069 786.61474609
-94.94100952  34.95353699 786.51550293
-94.61016846  36.55965042 786.44104004
-94.58031464  37.83524704 786.19287109
-93.96350098  38.8116188  786.41619873
-94.89007568  40.4044075  786.09356689
-94.90206146  41.69664383 786.19287109
-94.32402039  43.65764236 786.73883057
-94.9829483   44.95275497 786.86291504
-94.0376358   44.96268463 787.03668213
-94.36567688  45.93196487 787.08630371
-95.00691223  47.21907043 787.0614624 
-95.01290894  47.86636734 787.11114502
-94.38948822  49.81031036 787.28485107
-94.09693909  51.43767166 787.53302002
-95.03088379  52.3864975  787.26000977
-94.73855591  53.6923027  787.50823975
-94.43114471  54.66788101 787.63232422
-94.15031433  56.62707901 787.97973633
-94.46982574  57.27030945 787.95495605
-93.86329651  57.61639404 788.27758789
-94.79826355  59.20906067 788.00457764
-94.18293762  58.5824585  788.25274658
-94.816185    60.51059341 788.15350342
-94.50553131  60.19558716 788.25274658
-94.82514191  61.1615448  788.22796631
-94.25114441  63.14492035 788.8236084 
-94.86693573  63.77056885 788.57537842
-94.59181976  65.74020386 788.97247314
-94.61264801  66.7236557  789.14624023
-94.01696777  67.08249664 789.56811523
-94.92963409  67.68836975 789.09655762
-94.04061127  68.39234924 789.7666626 
-94.64835358  69.01063538 789.44403076
-94.6632309   69.66780853 789.56811523
-94.97143555  69.97997284 789.44403076
-94.07312012  70.03277588 790.03967285
-94.09971619  71.34637451 790.26306152
-93.18211365 -62.5968895  790.70977783
-92.87891388 -62.61064148 790.88348389
-92.53200531 -62.27130127 790.68493652
-93.01298523 -61.728508   792.02514648
-93.69061279 -62.07212448 792.27331543
-92.69465637 -60.43561554 792.07476807
-92.72951508 -60.78265381 792.37261963
-92.52039337 -42.84862137 790.58569336
-92.69821167 -41.81214523 789.3447876 
-92.7623291  -42.48765945 789.89074707
-92.87793732 -41.10257339 788.12866211
-92.57580566 -41.11163712 788.3024292 
-93.67288971 -31.5809288  783.98400879
-92.77786255 -30.96170044 784.55487061
-92.57962036 -31.00283623 785.597229  
-92.67220306 -29.64345169 783.66137695
-92.74263763 -30.30796432 784.25701904
-92.54893494 -28.64306068 782.61901855
-92.9487381  -29.62936974 783.28912354
-93.1156311  -27.98021889 781.99853516
-92.51811218  -7.27997971 793.34051514
-92.55573273  -6.30841827 793.66314697
-93.21992493  -5.98451328 793.78723145
-92.58178711  -4.68553352 793.88653564
-93.6763916   -4.04084206 794.90405273
-92.68304443  -2.40520525 791.9755249 
-92.59046173  -3.38612247 793.9609375 
-93.74073792  -3.39247346 795.45007324
-92.68304443  -1.43275547 791.9755249 
-92.70046234  -1.10881388 792.12438965
-9.28369751e+01  1.88306451e-01  7.93290894e+02
-9.32374115e+01  1.88459620e-01  7.93936157e+02
-9.37319641e+01 -1.36740252e-01  7.95375610e+02
-92.69174957   1.48473334 792.04992676
-93.41901398   1.16153491 792.72003174
-9.35623322e+01  5.13411999e-01  7.93936157e+02
-92.54363251   2.7770102  790.78424072
-92.64818573   1.80806363 791.67767334
-92.5087738    3.74658561 790.48638916
-93.56734467   4.07395983 791.23095703
-92.46230316   5.68497086 790.08929443
-93.21135712   4.72002077 790.95794678
-93.18795776   6.98440123 790.75939941
-93.53505707   6.98615503 790.95794678
-92.69821167   7.61805296 789.3447876 
-92.71861267   7.29658508 789.51849365
-93.58495331   7.9616003  791.37988281
-93.48223114   8.92351246 790.51123047
-92.45359039  10.53464699 790.01483154
-93.40592957  12.14909363 789.8659668 
-92.70986938  13.11194515 789.44403076
-93.70855713  13.11606789 789.69219971
-93.34429169  14.72566319 789.3447876 
-93.69089508  13.75990391 789.54333496
-92.53791046  15.99025536 787.97973633
-92.58162689  15.67514324 788.35205078
-92.49127197  16.62690163 787.5826416 
-93.5730896   16.32458687 788.55059814
-92.8633194   18.24843216 788.00457764
-93.52891541  18.57505035 788.17828369
-92.55249023  19.21842766 788.10388184
-93.2327652   19.87106323 788.40167236
-92.44464874  21.12917137 787.18560791
-93.22689819  20.19248009 788.35205078
-93.10069275  22.42075539 787.28485107
-92.74047852  24.02205849 786.96221924
-92.73754883  24.66547585 786.93737793
-92.72877502  25.95137024 786.86291504
-93.05960846  25.63173866 786.93737793
-93.03612518  27.55731201 786.73883057
-93.65348053  29.15906525 786.51550293
-93.67120361  30.45248795 786.66436768
-93.67416382  31.4194088  786.68920898
-93.32570648  32.69806671 786.46582031
-93.34043121  34.31295395 786.58996582
-93.02145386  35.60186005 786.61474609
-93.02439117  36.24691772 786.6395874 
-92.71414948  38.1835289  786.73883057
-93.34632111  39.46657562 786.6395874 
-92.72293091  39.79732895 786.81329346
-93.36693573  42.05158615 786.81329346
-92.73170471  41.0893631  786.88775635
-93.68894196  43.33973694 786.81329346
-93.06841278  43.35067368 787.01184082
-92.4533844   44.00878143 787.26000977
-92.49127197  46.28327942 787.5826416 
-93.12711334  46.92354965 787.50823975
-93.45529175  48.53821564 787.55786133
-92.84869385  49.52552414 787.88049316
-92.87793732  51.47657394 788.12866211
-92.56996918  51.48468018 788.25274658
-93.18874359  51.79262924 788.02941895
-92.57871246  52.13485718 788.32720947
-93.50830078  53.08109283 788.00457764
-92.90133667  53.4254837  788.32720947
-93.51713562  54.37633133 788.07904053
-93.22103119  55.0370369  788.3024292 
-93.52597046  55.67181015 788.15350342
-92.93350983  56.67166901 788.60021973
-93.24156952  56.98546982 788.47613525
-92.67198181  59.29297638 789.12139893
-92.99785614  60.58681107 789.14624023
-93.61431885  61.21353531 788.89801025
-92.71861267  61.90797043 789.51849365
-93.32668304  62.20568466 789.19586182
-92.73318481  62.88728333 789.64257812
-93.6555481   63.82475662 789.2454834 
-92.45940399  63.89099121 790.06451416
-93.68206024  65.13531494 789.46887207
-92.78856659  65.83533478 790.11413574
-93.7115097   67.09514618 789.71704102
-93.12947083  68.11188507 790.26306152
-93.45288849  69.08222961 790.26306152
-92.56976318  69.79482269 791.00756836
-93.48223114  70.39812469 790.51123047
-92.59010315  70.45780182 791.18133545
-93.50571442  71.71033478 790.70977783
-92.91389465  72.07692719 791.18133545
-91.47215271 -62.53401566 789.91558838
-91.21474457 -61.93212128 790.48638916
-92.24893951 -61.97490311 791.03240967
-92.37918091 -61.08973694 792.14923096
-91.3693924  -60.74076843 791.82659912
-92.38497162 -60.76932526 792.19885254
-91.34075165 -59.74977112 791.57843018
-91.3207016  -48.39958191 791.40466309
-91.32357025 -47.75325012 791.42950439
-91.30638885 -45.47720337 791.28057861
-91.24052429 -44.14987183 790.70977783
-91.94539642 -44.82525635 791.20611572
-91.20615387 -43.48622131 790.41192627
-92.22289276 -43.83174133 790.809021  
-92.0434494  -41.48515701 789.27032471
-91.44628143 -41.50733185 789.69219971
-91.74062347 -40.84806061 789.44403076
-91.14315033 -41.19318008 789.8659668 
-91.44341278 -39.56679916 789.66741943
-91.17179108 -37.6488533  790.11413574
-91.48077393 -36.99626541 789.99005127
-91.48651886 -36.02851486 790.03967285
-91.20901489 -34.7525444  790.43676758
-91.16033173 -32.79391098 790.01483154
-92.36011505 -31.35900879 786.46582031
-91.81769562 -31.07139397 787.33447266
-91.32557678 -31.44609261 788.64984131
-91.43479156 -32.13004684 789.59295654
-92.39535522 -29.65753174 784.03363037
-91.93079376 -30.03631783 785.54754639
-91.9772644  -30.3731823  785.94464111
-91.23648834 -30.77046776 787.88049316
-91.6229248  -28.33351707 782.91680908
-91.77685547 -29.34406281 784.23217773
-91.50222015 -29.35892105 784.62927246
-91.90253448 -28.00064468 782.56939697
-91.29673004 -26.72961235 782.8671875 
-91.14779663 -25.53455734 795.54931641
-91.39347839 -23.23495674 794.85443115
-91.43058014 -21.94254684 795.17706299
-91.43058014 -20.64070511 795.17706299
-91.40203857 -19.33282852 794.92889404
-91.38491821 -18.02801514 794.77996826
-91.39633179 -16.72891235 794.87921143
-91.68727112 -15.74699593 794.5814209 
-92.0641861  -16.40664673 795.02813721
-91.63572693 -14.43800831 794.13470459
-92.30591583 -13.46585178 794.30841064
-91.63572693 -11.83773899 794.13470459
-92.35494232 -12.17189503 794.73034668
-91.22511292 -11.1771822  793.39013672
-91.56985474 -11.17962933 793.56384277
-91.42952728  -8.89238167 792.34777832
-91.31784821  -8.23370647 791.37988281
-92.13286591  -7.59969234 792.81933594
-91.38084412  -6.94286871 791.92584229
-91.78253937  -6.94874334 792.59594727
-92.21073914  -6.30703783 793.48944092
-91.24624634  -4.99072933 790.75939941
-91.29779053  -5.31738377 791.20611572
-91.46103668  -5.97571898 792.62078857
-91.95497894  -5.01171875 794.08508301
-91.55261993  -4.01901579 790.61047363
-92.11267853  -3.70493674 792.64556885
-92.28572845  -4.68699837 794.13470459
-91.23765564  -3.04852915 790.68493652
-91.98001099  -2.72773004 791.50396729
-92.11267853  -3.38051271 792.64556885
-91.30352783  -1.43145335 791.25579834
-9.12376556e+01 -4.59555537e-01  7.90684937e+02
-9.16330948e+01 -1.36040509e-01  7.91305420e+02
-9.23965530e+01 -7.84775138e-01  7.92298157e+02
-91.57274628   1.15869844 790.78424072
-92.01173401   0.83608443 791.77697754
-92.38208008   1.16073489 792.17407227
-91.87906647   2.77648711 790.63531494
-92.26920319   2.1308217  791.20611572
-91.51239014   3.42207813 790.26306152
-91.74351501   5.68050671 789.46887207
-92.12159729   5.36058283 789.94042969
-91.98555756   6.96686459 788.77392578
-92.41583252   6.32854462 789.69219971
-91.6685257    7.93588305 788.8236084 
-91.35431671   8.90530205 788.89801025
-92.41293335   9.5603981  789.66741943
-91.22786713  10.50519276 787.80603027
-91.62238312  10.83616447 788.42651367
-92.43325806   9.88577747 789.84112549
-91.24510956  11.47469139 787.95495605
-92.01740265  11.16764259 789.04693604
-92.41293335  11.49962997 789.66741943
-92.37517548  12.78722382 789.3447876 
-91.22499084  14.69649315 787.78118896
-92.331604    14.71871758 788.97247314
-91.86689758  15.66330051 787.75640869
-91.93636322  15.02980995 788.35205078
-91.22786713  17.27650452 787.80603027
-91.22212219  17.59783936 787.75640869
-91.43202972  19.50837898 786.78851318
-92.19509888  18.88872147 787.80603027
-91.39165497  20.46541595 786.44104004
-91.76560211  20.15497398 786.88775635
-91.40895844  22.07902145 786.58996582
-92.42424011  21.44662476 787.01184082
-91.75402832  23.69472885 786.78851318
-92.40966797  24.01978493 786.88775635
-91.75112915  25.3040638  786.76367188
-91.4262619   26.2692852  786.73883057
-92.07020569  27.87931824 786.73883057
-91.7424469   28.8435173  786.68920898
-91.73954773  30.13051224 786.66436768
-91.41760254  31.41841698 786.66436768
-91.73087311  32.05933762 786.58996582
-91.43202972  33.99958801 786.78851318
-91.75691223  35.61084747 786.81329346
-91.44356537  35.61421585 786.88775635
-92.3921814   36.57349396 786.73883057
-91.44356537  35.93628311 786.88775635
-92.08182526  37.86630249 786.83813477
-91.76849365  37.86988449 786.91259766
-92.40092468  38.50917816 786.81329346
-91.45798492  38.84101486 787.01184082
-92.40675354  39.79983902 786.86291504
-91.46663666  39.81113815 787.08630371
-91.49547577  42.07944107 787.33447266
-92.44172668  43.03669739 787.1607666 
-91.22212219  44.68137741 787.75640869
-91.56181335  45.97975922 787.90533447
-92.19219208  46.93981552 787.78118896
-91.27097321  46.96347427 788.17828369
-91.58776855  47.60567093 788.12866211
-91.28821564  48.2629776  788.32720947
-92.22413635  49.21389771 788.05419922
-91.61373138  49.87783051 788.35205078
-91.63102722  50.85543442 788.50091553
-92.27932739  52.47072601 788.52575684
-92.29094696  53.12289047 788.62506104
-91.70024872  54.76950836 789.09655762
-91.42042542  56.41096878 789.46887207
-91.42617035  56.73765945 789.51849365
-92.04055023  57.6871376  789.2454834 
-91.14888     57.73611832 789.91558838
-92.36355591  58.97926712 789.2454834 
-91.16033173  59.03676224 790.01483154
-92.37807465  59.95779037 789.36956787
-91.16892242  59.6890831  790.08929443
-92.11291504  61.61192703 789.8659668 
-91.22620392  62.96239471 790.58569336
-92.15053558  63.5776062  790.18859863
-91.25197601  63.95119858 790.809021  
-91.89348602  65.56544495 790.75939941
-91.28919983  65.59631348 791.13165283
-92.21421051  66.85795593 790.73461914
-91.91944122  66.8789444  790.98278809
-92.22289276  67.51159668 790.809021  
-91.95404816  69.17118073 791.28057861
-91.99443054  70.49758148 791.62805176
-91.40375519  70.86599731 792.12438965
-92.02039337  71.81387329 791.85144043
-91.41807556  72.17414093 792.24847412
-90.05155945 -63.09130096 788.79876709
-90.77709198 -62.50061417 789.49365234
-90.11672211 -62.16770554 789.36956787
-90.46820831 -62.18725204 789.61773682
-90.61038971 -61.31390762 790.85870361
-89.94329834 -60.97681427 790.68493652
-91.03392029 -60.08505249 791.72729492
-90.03928375 -59.42205048 791.52874756
-90.32319641 -53.37556458 788.35205078
-89.90422821 -52.67379379 787.50823975
-90.96846008 -52.40756607 788.35205078
-89.97505951 -51.74756241 788.12866211
-90.41418457 -51.49138641 789.14624023
-90.19889069 -51.22954178 790.08929443
-90.62460327 -50.63998795 790.98278809
-90.95401764 -49.3481102  791.03240967
-89.95459747 -49.00896454 790.78424072
-89.96024323 -48.36467361 790.8338623 
-90.99967957 -47.10539627 791.42950439
-90.65019226 -45.79676056 791.20611572
-90.91121674 -44.14710236 790.66015625
-90.61891174 -44.80978775 790.93310547
-89.92636871 -42.84592819 790.53607178
-90.52223206 -41.52820206 790.08929443
-90.52507782 -40.2359581  790.11413574
-90.83416748 -39.90629959 789.99005127
-89.94329834 -38.32329559 790.68493652
-90.86555481 -37.00905228 790.26306152
-89.96024323 -36.38841629 790.8338623 
-90.26972198 -35.08818054 790.70977783
-89.96588898 -35.41959    790.88348389
-90.89123535 -34.43118668 790.48638916
-89.96588898 -34.12477875 790.88348389
-90.25556183 -32.49402618 790.58569336
-89.96588898 -33.47737503 790.88348389
-90.73429108 -31.14191437 789.12139893
-90.20455933 -31.50547028 790.13897705
-91.0410614  -29.73921013 786.19287109
-91.12440491 -30.08851242 786.91259766
-90.04872131 -30.15968323 788.77392578
-90.14222717 -30.83734894 789.59295654
-90.69618225 -28.34429741 783.21466064
-90.30909729 -29.06716919 785.42346191
-90.14121246 -29.43878365 786.76367188
-89.89855957 -29.46478462 787.45855713
-90.65882874 -28.01218796 782.89202881
-90.34701538 -28.01485252 782.9664917 
-90.26110077 -26.70758057 782.22192383
-90.06417084 -24.52860832 794.60626221
-90.52487183 -25.54252243 795.79748535
-90.72305298 -23.55513382 794.68066406
-90.73439026 -24.20867348 794.77996826
-90.38089752 -21.92473984 794.53179932
-90.75421906 -21.93638229 794.95367432
-90.37524414 -21.59819412 794.4821167 
-91.10514832 -20.96616554 795.17706299
-90.33572388 -19.96358109 794.13470459
-91.08240509 -19.98479271 794.97851562
-89.90100861 -17.99142265 793.16674805
-91.03121948 -18.67277908 794.53179932
-89.87851715 -16.68869591 792.96826172
-91.02837372 -17.37145042 794.50695801
-89.85881805 -16.03606796 792.79449463
-90.60405731 -15.72830486 793.63830566
-90.56155396 -14.42221546 793.26605225
-90.94306946 -15.08100224 793.76239014
-90.17479706 -13.43892479 792.72003174
-90.9203186  -13.77802944 793.56384277
-90.07034302 -11.80296326 791.80175781
-90.48789215 -12.13958549 792.62078857
-90.90610504 -12.47687817 793.4397583 
-89.96871185 -10.49479294 790.9083252 
-90.76961517 -11.16109848 792.24847412
-90.26122284  -9.19676399 790.63531494
-90.28672791  -9.52305508 790.85870361
-91.08813477  -8.89070988 792.19885254
-90.25272369  -8.5487566  790.56085205
-90.94831085  -7.58208799 790.98278809
-91.03106689  -6.29283428 791.70251465
-90.59616852  -5.31421471 790.73461914
-90.62744141  -5.63980293 791.00756836
-90.57342529  -3.6950767  790.53607178
-90.91692352  -3.04862499 790.70977783
-90.31788635  -2.40264249 791.13165283
-89.93765259  -1.10672951 790.63531494
-89.99977112  -1.75514352 791.18133545
-9.02328949e+01 -7.82882273e-01  7.90387146e+02
-9.10944672e+01  5.10507107e-01  7.89444031e+02
-8.98360214e+01  5.10699749e-01  7.89741882e+02
-90.83987427   2.45103788 790.03967285
-90.12805939   3.09551501 789.46887207
-90.45967865   3.74211574 789.54333496
-90.43408966   5.03330898 789.31994629
-91.10878754   5.03489161 789.56811523
-90.75141144   6.9712491  789.27032471
-90.4312439    7.94062662 789.29510498
-90.34024811   9.22354794 788.50091553
-90.29191589   9.8637228  788.07904053
-90.95127869   9.86527634 788.203125  
-90.5630722   11.46999359 787.63232422
-90.21229553  12.75546074 787.38409424
-90.15258026  14.6793623  786.86291504
-90.89686584  14.05074215 787.73156738
-89.82489014  15.00047398 786.81329346
-90.17533112  15.97162056 787.0614624 
-89.82489014  17.25473404 786.81329346
-90.53168488  17.26670837 787.35931396
-90.47460175  18.54405022 786.86291504
-90.85676575  17.91179276 787.38409424
-90.74507904  19.82102203 786.41619873
-91.12440491  18.86730003 786.91259766
-91.05830383  20.1409893  786.34173584
-90.14121246  21.76187897 786.76367188
-90.78804016  23.69472885 786.78851318
-90.14974213  24.98441124 786.83813477
-89.83055878  25.62931252 786.86291504
-90.46604919  27.23702431 786.78851318
-89.83055878  28.52783012 786.86291504
-89.83338928  28.85079765 786.88775635
-90.15258026  29.49400139 786.86291504
-90.15827179  30.46209717 786.91259766
-90.78804016  30.77931976 786.78851318
-90.47746277  31.10527039 786.88775635
-91.11003876  32.06742859 786.78851318
-90.48602295  32.39660645 786.96221924
-91.11578369  34.00173569 786.83813477
-90.17248535  34.01031494 787.03668213
-91.11865234  34.64691925 786.86291504
-89.86456299  35.30439377 787.1607666 
-90.19523621  36.59657288 787.23522949
-89.89855957  38.21846008 787.45855713
-90.8338623   38.8495903  787.18560791
-89.9212265   40.48477173 787.65710449
-90.56021881  42.09403229 787.60748291
-90.56591797  42.41906738 787.65710449
-89.972229    44.05595398 788.10388184
-89.98639679  44.70812225 788.22796631
-90.93408966  45.34335709 788.05419922
-90.63156128  45.67597198 788.22796631
-90.97132111  47.29798508 788.37683105
-90.36299896  47.96295929 788.69946289
-90.67721558  48.92676926 788.62506104
-90.71716309  50.885849   788.97247314
-90.42555237  51.54951859 789.2454834 
-90.14222717  52.54174042 789.59295654
-91.06869507  53.48603821 789.22070312
-89.85295868  53.85474396 789.89074707
-90.77138519  54.47051239 789.44403076
-90.4824295   55.1375351  789.74188232
-91.12023926  56.42515945 789.66741943
-90.85128784  57.75244522 790.13897705
-90.86555481  59.37876129 790.26306152
-89.95741272  59.0961113  790.809021  
-90.87412262  60.03131485 790.33752441
-89.96871185  60.07466888 790.9083252 
-90.59616852  61.6796875  790.73461914
-90.28388977  61.04006195 790.8338623 
-90.9140625   62.64667511 790.68493652
-90.60469055  62.33283615 790.809021  
-90.64735413  63.98130417 791.18133545
-90.66440582  64.96500397 791.3302002 
-90.09857178  66.64498901 792.04992676
-90.72696686  68.25092316 791.8762207 
-90.10704041  67.29967499 792.12438965
-91.0710144   69.56261444 792.04992676
-90.15221405  68.95528412 792.52148438
-91.09670258  70.55504608 792.27331543
-90.80658722  71.23036194 792.57116699
-90.49355316  72.53701782 792.67041016
-88.73236847 -62.42595673 788.55059814
-88.74353027 -61.78823471 788.64984131
-89.5353241  -61.24271393 789.94042969
-89.62815094 -60.65890503 790.75939941
-89.68722534 -60.05115128 791.28057861
-88.68234253 -59.05732346 790.98278809
-89.02838898 -58.10066986 791.18133545
-89.02280426 -56.80180359 791.13165283
-88.65451813 -55.80237198 790.73461914
-89.31575012 -55.48743439 790.85870361
-88.99060822 -53.35035706 787.97973633
-89.4706192  -54.09062195 789.36956787
-89.20363617 -54.44792557 789.8659668 
-88.57597351 -52.00619125 787.1607666 
-88.6457901  -51.40231705 787.78118896
-88.74911499 -51.13942337 788.69946289
-89.25968933 -50.6002655  790.36230469
-89.29611969 -49.32643127 790.68493652
-89.62252808 -49.00434875 790.70977783
-88.63781738 -47.70233536 790.58569336
-89.3129425 -46.7462616 790.8338623
-88.65451813 -46.41675186 790.73461914
-89.3213501  -46.42694855 790.9083252 
-88.71016693 -44.50281906 791.23095703
-89.63096619 -42.85937881 790.78424072
-89.04514313 -43.53674316 791.3302002 
-89.61971283 -41.88313293 790.68493652
-88.73799133 -42.57309723 791.47912598
-89.62252808 -40.58992004 790.70977783
-88.75746918 -40.63833618 791.65289307
-89.62815094 -39.94516373 790.75939941
-89.05632019 -39.97901535 791.42950439
-89.07307434 -38.6905899  791.57843018
-89.66471863 -36.39983749 791.08203125
-89.09262085 -35.45849228 791.75213623
-89.66471863 -34.13334656 791.08203125
-89.66471863 -33.48577881 791.08203125
-89.63096619 -31.85486031 790.78424072
-89.32975769 -31.86285782 790.98278809
-89.70898438 -29.83121109 788.62506104
-88.60442352 -30.21756935 790.2878418 
-88.66285706 -30.88484192 790.809021  
-89.80851746 -28.36764908 783.85992432
-89.28549957 -28.40537071 784.90228271
-88.76918793 -28.44578934 786.019104  
-89.63557434 -29.48428726 787.97973633
-89.10552979 -29.52236176 788.99731445
-88.52373505 -29.54372025 789.56811523
-89.36022949 -27.36611748 782.74310303
-89.0991745  -27.70492363 783.26428223
-88.89958191 -28.06369209 784.33148193
-89.20722198 -26.0399704  781.40289307
-89.2922287  -26.70503807 782.14746094
-88.8507309  -25.70952797 781.08026123
-88.8576355  -24.78940392 792.54632568
-89.68572235 -24.83908463 794.13470459
-88.84650421 -23.81326866 792.44702148
-89.62686157 -23.19868279 793.61352539
-88.8298111  -21.86310387 792.29815674
-89.60723877 -21.89460564 793.4397583 
-88.80755615 -20.56082153 792.09960938
-89.60163879 -21.56850815 793.39013672
-88.79364014 -19.90930176 791.9755249 
-89.17640686 -19.92240334 792.4967041 
-88.76860046 -18.28339386 791.75213623
-89.5399704  -18.95762062 792.84411621
-88.75468445 -16.98449707 791.62805176
-89.13730621 -17.64412117 792.14923096
-88.74633789 -16.33494568 791.55358887
-89.47270203 -15.7007618  792.24847412
-89.45027924 -14.40010548 792.04992676
-89.8166275  -14.08254147 792.42224121
-89.44187927 -13.750453   791.9755249 
-89.80536652 -13.4321928  792.32293701
-88.65729523 -11.78742504 790.75939941
-89.73504639 -12.12552166 791.70251465
-88.61833954 -10.16469574 790.41192627
-89.64221954 -10.81816578 790.88348389
-89.59720612  -8.87149143 790.48638916
-89.62815094  -7.57994652 790.75939941
-88.623909    -6.28297091 790.46160889
-89.63658905  -6.93329525 790.8338623 
-89.2736969   -5.63608694 790.48638916
-89.58314514  -3.69426441 790.36230469
-88.80217743  -2.39668798 789.17102051
-89.59720612  -2.72422314 790.48638916
-88.81056213  -1.42781651 789.2454834 
-89.18400574  -1.10540926 789.69219971
-8.85237350e+01  1.87422752e-01  7.89568115e+02
-8.92092361e+01  5.10812044e-01  7.89915588e+02
-88.82452393   1.80279231 789.36956787
-89.81626129   2.12641025 789.56811523
-89.09992981   3.09347153 788.94769287
-88.67930603   5.67050648 788.07904053
-88.69326782   5.34879351 788.203125  
-88.63741302   6.63503647 787.70678711
-89.01864624   6.31681013 788.22796631
-88.97940063   7.60392094 787.88049316
-89.36373138   7.60919046 788.42651367
-88.62903595   9.53575993 787.63232422
-89.66098785   9.22006416 788.203125  
-89.28496552  10.50419998 787.73156738
-89.23432922  12.10939312 787.28485107
-89.50852966  13.39113331 786.86291504
-88.88970947  12.75063705 787.08630371
-89.82205963  14.6779747  786.78851318
-88.87850189  14.68167877 786.98706055
-89.50571442  15.000947   786.83813477
-88.56759644  15.00567913 787.08630371
-89.16400146  16.92949104 786.66436768
-88.54524994  16.29016304 786.88775635
-89.81922913  17.57566261 786.76367188
-88.54524994  18.22256851 786.88775635
-89.18650818  18.86610794 786.86291504
-88.8700943   18.86730003 786.91259766
-89.82205963  21.11851311 786.78851318
-89.18932343  21.12117767 786.88775635
-89.82205963  22.08459282 786.78851318
-88.86728668  22.08737946 786.88775635
-89.50852966  24.0190258  786.86291504
-88.55363464  23.05576324 786.96221924
-89.19494629  24.98756218 786.93737793
-88.87289429  25.63173866 786.93737793
-89.19213867  26.91924286 786.91259766
-88.88130188  28.21111107 787.01184082
-89.20619965  29.82264328 787.03668213
-88.89531708  30.79291153 787.13592529
-89.53958893  32.40375519 787.13592529
-88.91493988  33.37763214 787.30969238
-89.23432922  34.98772812 787.28485107
-88.63182831  36.61618423 787.65710449
-88.95697784  37.58451462 787.6819458 
-88.66534424  38.56505585 787.95495605
-89.61581421  40.81487274 787.80603027
-88.69606018  40.83673096 788.22796631
-89.00743103  41.15415955 788.12866211
-88.71560669  42.13647842 788.40167236
-89.33278656  42.44580078 788.15350342
-89.03266144  42.77915955 788.35205078
-89.65815735  43.73751831 788.17828369
-89.69768524  45.37049103 788.52575684
-88.81056213  46.7040329  789.2454834 
-88.52095032  47.3679657  789.54333496
-89.75415039  48.62846375 789.02215576
-88.84407806  48.33742905 789.54333496
-89.15878296  49.30224228 789.46887207
-88.55990601  49.65188599 789.89074707
-89.79085541  50.26371384 789.3447876 
-89.18400574  50.28583527 789.69219971
-89.51844788  51.90843964 789.79150391
-89.54376221  53.21650696 790.01483154
-88.96974945  55.20164871 790.66015625
-88.66842651  55.21550751 790.85870361
-88.98371124  55.8576355  790.78424072
-88.67677307  55.54442596 790.93310547
-89.62252808  57.47053528 790.70977783
-89.3213501   57.80867767 790.9083252 
-89.03118134  58.47811508 791.20611572
-88.75746918  59.80720901 791.65289307
-88.78529358  61.77067184 791.90106201
-89.1177597   63.07308197 791.9755249 
-88.81033325  62.76072693 792.12438965
-89.73504639  63.6994133  791.70251465
-89.13730621  64.05957794 792.14923096
-89.76599121  65.34213257 791.9755249 
-89.15126801  64.71815491 792.27331543
-89.18757629  66.04212952 792.59594727
-88.62200165  68.05241394 793.34051514
-88.63309479  68.38568115 793.4397583 
-89.57080078  69.33172607 793.11712646
-88.65804291  69.05461121 793.66314697
-89.60163879  70.65450287 793.39013672
-88.69408417  70.38257599 793.98577881
-89.57640839  72.25779724 793.16674805
-88.70794678  71.69367218 794.10986328
-89.27693939  72.60288239 793.39013672
-88.98564148  72.63013458 793.68798828
-88.1091156  -63.73299026 788.74914551
-87.23668671 -64.12635803 789.61773682
-87.39196777 -62.71315765 788.10388184
